ply
format ascii 1.0
element vertex 1420
property float x
property float y
property float z
property uchar red
property uchar green
property uchar blue
end_header
 -8.63021 -0.768483  -2.61952 0 0 0
-6.93509  4.61684 0.136682 0 0 0
-6.66568  3.28774  1.38965 0 0 0
  -7.82843    3.14479 0.00784157 0 0 0
 -7.37174   4.47473 -0.159575 0 0 0
-8.45975  1.78028  1.48211 0 0 0
-11.2049  2.51204  2.05152 0 0 0
-8.28503 -1.31108 -1.48989 0 0 0
 -7.68723   4.28502 -0.557234 0 0 0
-7.58947  3.15135 0.408443 0 0 0
-8.19147  2.31248  2.67238 0 0 0
-7.43527  6.24577  2.84805 0 0 0
-6.40466  3.14388  1.93756 0 0 0
  -8.4258 0.0028687  -2.57396 0 0 0
-7.58903  1.99998  1.10796 0 0 0
-11.9597 0.524824  2.19525 0 0 0
-12.9918  2.28386 0.672427 0 0 0
-8.58638  1.53486  -2.8127 0 0 0
 -7.81702   3.03458 -0.168452 0 0 0
-8.55388  1.36194 -3.45891 0 0 0
-6.29668   4.4682 0.991034 0 0 0
 -12.9642   5.25289 -0.351869 0 0 0
-6.8037 4.35302 5.37415 0 0 0
 -7.29665   4.16546 0.0805945 0 0 0
 -9.7679 0.603024 -4.95835 0 0 0
 -7.80661   2.82754 -0.315254 0 0 0
-7.71118   3.5915  4.82139 0 0 0
-7.15022  2.73368  1.18968 0 0 0
 -8.34883 -0.419033 -0.982067 0 0 0
-6.73039  3.84931  1.02808 0 0 0
-7.01814  3.75218 0.850923 0 0 0
-7.51717  2.59678 0.739461 0 0 0
-7.99341  3.48299  5.19705 0 0 0
  -8.9128 -0.550406  -3.24681 0 0 0
-7.41452  2.68262 0.921116 0 0 0
-7.38341  2.76475 0.840371 0 0 0
-7.02328  5.33325  1.67812 0 0 0
-8.21505  -1.4756 -1.18564 0 0 0
-6.78236  4.70494  0.26314 0 0 0
  -8.3115 -0.619202  -1.14219 0 0 0
-6.90538  4.95528  5.04328 0 0 0
-8.63517  1.71455 -2.70008 0 0 0
 -8.7866 0.797666 -1.14498 0 0 0
-8.34652 -0.26413 -1.28649 0 0 0
-8.42648 0.255748 -2.12004 0 0 0
  -8.72265 -0.0474566  -0.431775 0 0 0
-7.93254  2.46476 0.842164 0 0 0
-6.79805  3.59852  1.09486 0 0 0
-7.11219  1.83517  1.90908 0 0 0
-10.3986  3.07111 -1.27942 0 0 0
-8.47756 0.206831 -2.47735 0 0 0
-8.34184 -0.92638 -1.75895 0 0 0
-6.71237  3.99539  1.00188 0 0 0
-7.58281  1.33104  1.52007 0 0 0
-7.27563   3.3876  3.40423 0 0 0
 -7.85049   3.06297 -0.148206 0 0 0
-12.8466  2.25257 0.450671 0 0 0
-6.91381  6.71095  3.44585 0 0 0
-7.56801  1.89364  1.24661 0 0 0
-8.34227 -0.24714 -1.39487 0 0 0
-6.70967  3.79502  1.12348 0 0 0
-6.9702 3.36121 1.07301 0 0 0
 -8.08289    2.8348 -0.341972 0 0 0
-7.28696  1.93083  1.54443 0 0 0
-8.43074 0.411554 -2.57859 0 0 0
-8.64459 -1.36886 -2.25734 0 0 0
-7.54943   7.0988  3.10993 0 0 0
-7.62757  6.42381  3.54865 0 0 0
-7.50335  6.30881  3.47853 0 0 0
-7.26878  3.80462  0.41579 0 0 0
-9.48453 0.182254 -4.42907 0 0 0
-6.62843  2.63406  1.84826 0 0 0
-6.77684  8.54712   4.4812 0 0 0
-6.94303  1.86952  2.00108 0 0 0
-6.74524  4.44493 0.456708 0 0 0
 -8.4122 0.410908 -1.35595 0 0 0
-5.30735  7.94411  4.68261 0 0 0
-9.90039  1.46674   3.6026 0 0 0
-6.83036  2.45669  1.90809 0 0 0
   -8.39207 -0.00367921    -1.81936 0 0 0
 -8.41407 -0.284144  -2.24856 0 0 0
 -12.1451   5.16957 -0.252881 0 0 0
-7.66336  4.24403  0.67145 0 0 0
-8.19449  1.84906  1.13145 0 0 0
 -9.78824   4.33166 0.0419869 0 0 0
 -8.52009 -0.735918   -2.4237 0 0 0
-8.38252 -1.48925  -1.1763 0 0 0
  -7.8049   3.96885 -0.460797 0 0 0
-13.4582  4.27021  -1.0914 0 0 0
-6.80739  5.01093  1.61712 0 0 0
-7.27437  3.14084 0.767315 0 0 0
 -8.82628 -0.642474  -3.01486 0 0 0
-8.69757  1.83434 -2.49727 0 0 0
-7.49813  7.17578  3.34698 0 0 0
-6.85865  4.07505 0.794325 0 0 0
-7.98616  3.58614  4.55476 0 0 0
-7.76996   3.0323 0.195224 0 0 0
-8.86795  1.67087 -1.92888 0 0 0
-8.00064  3.37667 0.112616 0 0 0
-7.51433  6.48563  2.89868 0 0 0
-6.78198  2.70615  1.84957 0 0 0
  -11.845   4.74929 -0.708688 0 0 0
-6.35402  2.80731  2.39161 0 0 0
 -8.78542   3.00059 -0.349964 0 0 0
-8.1659 4.17071 4.39754 0 0 0
  -8.68327 -0.0722999   -3.13818 0 0 0
-6.7195 1.98833 2.13019 0 0 0
 -8.59131 -0.122111  -2.79199 0 0 0
-7.35848  2.24051  1.41913 0 0 0
-9.05858 -1.58307 -2.59654 0 0 0
-6.78107  3.58327   1.0884 0 0 0
-12.2186  1.64399  1.33485 0 0 0
-8.08713  4.32275  4.17134 0 0 0
 -8.31849 -0.752162   -1.6958 0 0 0
-8.30004 -1.31123 -1.48926 0 0 0
-8.71603 0.976972 -1.48773 0 0 0
-7.07455  2.52945  1.41595 0 0 0
 -7.37444   3.93954 -0.178706 0 0 0
-7.10484  2.30269  1.50962 0 0 0
-8.43796 0.236377 -1.49716 0 0 0
-6.39188  4.84393 0.808208 0 0 0
    -6.853    4.66054 0.00436106 0 0 0
-6.58673  3.97022  1.08629 0 0 0
-6.46042  3.87207  1.33744 0 0 0
-12.4533  1.05625  1.19077 0 0 0
-6.54372  3.78647  1.29308 0 0 0
-6.81129  2.61138  1.71995 0 0 0
-6.32617  4.30807  1.15447 0 0 0
 -12.7252    4.8288 -0.585326 0 0 0
-7.05691  2.35419  1.52075 0 0 0
-7.66029  3.21279 0.306069 0 0 0
-6.35145  4.01579  1.33827 0 0 0
-7.46668  3.27345 0.493146 0 0 0
-7.57418   3.4605 0.251293 0 0 0
-6.77804   3.8045 0.995178 0 0 0
-6.42119   3.9082  1.37382 0 0 0
-6.45561    3.867  1.33599 0 0 0
-6.56154  3.66945  1.36221 0 0 0
 -8.97949 -0.747779  -3.17531 0 0 0
-8.44283 -1.23234 -1.39927 0 0 0
-6.80634  2.63334  1.60875 0 0 0
-8.48383 0.435793 -1.64455 0 0 0
-7.02983     4.18 0.164063 0 0 0
 -8.161 3.68084 5.21859 0 0 0
  -8.0773   3.60259 -0.341435 0 0 0
 -8.34933 -0.859877  -1.82369 0 0 0
-7.18947  3.61638 0.602396 0 0 0
-7.62153  3.35481 0.266195 0 0 0
-8.43696 0.369361 -1.96682 0 0 0
-7.12077  3.43885 0.740552 0 0 0
-8.57509  1.50018 -2.72289 0 0 0
-7.93201  2.95232 0.094353 0 0 0
  -6.81412    4.52763 -0.0140162 0 0 0
-7.64449  3.50408 0.129636 0 0 0
 -7.92488   3.08743 0.0632468 0 0 0
-12.7552  2.21093 0.623751 0 0 0
 -6.1524  4.49305 0.323518 0 0 0
-9.14238 0.591265 -4.32678 0 0 0
-8.80655 0.981926 -1.33407 0 0 0
  -7.58161    3.91275 -0.0891442 0 0 0
 -7.89334   3.02726 0.0683528 0 0 0
-7.62416  3.17536 0.414376 0 0 0
-6.40898  2.62069   2.0832 0 0 0
-7.04641  1.79636  2.23628 0 0 0
-7.1294 2.32008 1.51203 0 0 0
 -8.64728 -0.267016  -2.99717 0 0 0
 -8.31317 -0.727069  -1.58182 0 0 0
-6.54303  2.68236  1.94849 0 0 0
-9.74773 0.599308 -4.95035 0 0 0
-11.6621 0.606464  2.54775 0 0 0
 -8.70412 -0.202738  -3.11592 0 0 0
 -8.73205 -0.392327  -3.07921 0 0 0
-11.9285  2.10886  1.27887 0 0 0
-6.40034  2.64538  2.03277 0 0 0
-6.91643  1.73014  2.14646 0 0 0
-7.61509  3.47103 0.139429 0 0 0
-9.16899 -1.51207 -2.70869 0 0 0
-8.54206 0.619144 -1.63659 0 0 0
-6.92227  4.28026 0.520515 0 0 0
 -8.41615 -0.339833 -0.917206 0 0 0
-8.59502 -1.68006 -1.95761 0 0 0
-6.48797  2.59549  2.12502 0 0 0
-12.1316  1.99057  1.33354 0 0 0
-6.76832  4.70601 0.333028 0 0 0
 -8.29009 -0.865357  -1.56755 0 0 0
-6.38368  3.96998  1.44849 0 0 0
  -7.67999    3.67428 -0.0224981 0 0 0
-7.06748  4.19385 0.313506 0 0 0
-6.40264   2.6159  2.08255 0 0 0
-6.76535  2.48615  1.80041 0 0 0
-7.66574  2.06323 0.998281 0 0 0
-8.52898 0.363213 -1.17409 0 0 0
-6.83941  2.58403  1.64998 0 0 0
 -8.44027   3.36349 -0.149855 0 0 0
  -7.89097    3.23104 -0.0855108 0 0 0
-12.2697  2.06655  1.13736 0 0 0
-7.04048   4.6685 0.131645 0 0 0
-6.47185  3.15149  1.56494 0 0 0
  -7.449  2.70901 0.919434 0 0 0
-6.61428  4.95004  1.64788 0 0 0
-6.96973  2.92595  1.36039 0 0 0
-7.62072  3.47752  0.14069 0 0 0
 -7.1692  4.10968 0.320667 0 0 0
 -8.27891 -0.719162  -1.38753 0 0 0
-6.94073  4.27145 0.369935 0 0 0
-6.71596  4.62521 0.495792 0 0 0
 -8.25837 -0.798771  -1.40075 0 0 0
-6.67813  3.97114 0.999123 0 0 0
-7.17699  3.26747 0.861524 0 0 0
-6.98845  3.72584 0.843901 0 0 0
-6.76249  4.70258 0.333711 0 0 0
-6.90537  4.63792 0.213789 0 0 0
-7.15271  2.67787  1.51377 0 0 0
-6.53693    4.748  0.66759 0 0 0
-6.59367  3.96097  1.09824 0 0 0
-6.90088  4.37012 0.420345 0 0 0
-7.22227  2.26453  1.35978 0 0 0
-7.46194  3.14817 0.555018 0 0 0
-12.5864  2.05753  1.04594 0 0 0
-7.07098  4.44121 0.274134 0 0 0
-7.61319  1.79173  1.31355 0 0 0
 -7.35759   4.31955 -0.194413 0 0 0
-6.76807  2.71159  1.66818 0 0 0
  -8.66564 -0.0272247   -3.17533 0 0 0
-6.5082 4.16758 1.01989 0 0 0
-6.63406  4.03388 0.988365 0 0 0
 -8.85886 -0.214235  -3.42407 0 0 0
-6.55146  4.80962 0.594606 0 0 0
-6.30977  4.28819  1.14674 0 0 0
-6.36391  2.63193  2.22135 0 0 0
-8.58627  1.75299 -3.45941 0 0 0
-6.95625  2.57073  1.53074 0 0 0
-6.42454  3.90966  1.37468 0 0 0
 -7.90737   3.18051 0.0343008 0 0 0
 -8.61737 -0.604961  0.151348 0 0 0
-9.36159  1.29752 -1.47534 0 0 0
 -8.34941  -1.04837 -0.218807 0 0 0
-12.044 1.64773 1.82524 0 0 0
  -7.60239    3.69547 0.00943397 0 0 0
-6.93721  4.61731 0.137065 0 0 0
-6.93252  4.33096 0.377698 0 0 0
-8.64732  1.72633 -2.53616 0 0 0
-8.87388  1.82105 -2.16666 0 0 0
-8.50186 0.408979  -1.3915 0 0 0
-12.0911  1.23534  1.78307 0 0 0
-7.5105 2.02679 1.31799 0 0 0
-7.39189  7.25654  3.36101 0 0 0
-7.46413  3.55455 0.300252 0 0 0
-7.36153   2.8648 0.822595 0 0 0
-11.8468  1.42159  1.91454 0 0 0
-6.67794    3.967 0.995566 0 0 0
   -8.598 -0.332284 -0.166831 0 0 0
-7.70931  1.34888  1.72547 0 0 0
-8.76058 0.792767 -1.14099 0 0 0
-10.7676  2.48188  2.39714 0 0 0
 -8.34099   2.85917 -0.397029 0 0 0
-7.51045  2.07894  1.17092 0 0 0
   -8.3762 -0.0336867   -1.71726 0 0 0
  -8.0475   4.00662 -0.709388 0 0 0
-8.97942 -1.22603 -2.76187 0 0 0
-8.47279 0.434195 -1.72504 0 0 0
-7.52235  2.54449 0.850432 0 0 0
 -12.7298   4.46637 -0.637392 0 0 0
-6.98287  4.21384 0.484325 0 0 0
-7.73222  2.12902  1.02433 0 0 0
-6.89116  4.94006  5.02978 0 0 0
-7.26727  4.02755 0.445245 0 0 0
-6.80363  2.64377  1.60693 0 0 0
-7.33481  3.31371 0.648901 0 0 0
-6.81681  3.49313  1.16696 0 0 0
-7.86396  3.76789  4.29855 0 0 0
-6.97785  4.14828 0.566176 0 0 0
 -8.77105  0.571752 -0.864596 0 0 0
-6.42443  4.13079  1.04396 0 0 0
-8.70271 0.976057 -3.83323 0 0 0
-8.55448 -1.22761 -2.06951 0 0 0
-7.57108  7.65403  3.28469 0 0 0
-7.13141  3.87087 0.520407 0 0 0
-8.45659 0.184354 -2.38541 0 0 0
-7.34652  2.05902  1.41013 0 0 0
 -12.5228 0.0252794  -5.84213 0 0 0
-7.19978  3.47877 0.756789 0 0 0
-8.44722 0.426651 -1.80114 0 0 0
 -12.731  2.20635 0.616068 0 0 0
-9.56613 -1.61315 -2.89226 0 0 0
-7.03325  3.18439  1.05261 0 0 0
-6.72606  3.81786  1.13509 0 0 0
 -7.82396    3.7566 -0.335005 0 0 0
 -8.37416 -0.125637  -1.49624 0 0 0
-8.38747 -1.49897 -1.61332 0 0 0
 -7.3758  2.73893 0.930553 0 0 0
    -8.40676 -0.000849979     -1.52682 0 0 0
 -7.58318   4.28119 -0.362573 0 0 0
-6.47069   2.7704   2.1508 0 0 0
-6.79631  4.65153 0.084839 0 0 0
  -8.2353 -0.931313 -0.739706 0 0 0
-6.69284  4.22829 0.720986 0 0 0
-9.20219 -2.13017 -2.14817 0 0 0
-8.45999 0.420117 -1.98499 0 0 0
-8.71984 -2.21394 -1.60173 0 0 0
-7.02521  4.49306 0.184692 0 0 0
 -8.33433 -0.519282   -1.5875 0 0 0
 -7.06452   4.51079 0.0907037 0 0 0
 -7.60268   3.69697 0.0105221 0 0 0
 -8.24057   4.16249 -0.714472 0 0 0
-7.94255 0.806541 -4.46981 0 0 0
 -9.7861  1.39648 -1.26033 0 0 0
 -8.37723 -0.440519   -1.9685 0 0 0
-7.09053  4.21433 0.309093 0 0 0
 -7.29822    4.1686 0.0807497 0 0 0
-8.77572 0.914779 -1.18048 0 0 0
 -7.78592   4.06689 -0.561529 0 0 0
 -7.82545   4.11172 -0.610275 0 0 0
-6.41988  2.79707  2.12001 0 0 0
-13.2847  4.04277 -1.02136 0 0 0
 -7.84921   3.73265 -0.323473 0 0 0
-8.71772   1.6006  -2.3911 0 0 0
 -7.82643   3.69964 -0.314749 0 0 0
-6.91559  2.58538  1.64341 0 0 0
 -13.2129   3.78092 -0.840612 0 0 0
-8.27116 -1.32689  -1.3897 0 0 0
-6.76769  2.16829  1.94833 0 0 0
 -7.80222    3.7493 -0.202645 0 0 0
-6.98322  4.57137 0.134933 0 0 0
-8.43312 0.412965 -1.98346 0 0 0
-8.76587  3.26031  4.45402 0 0 0
-7.05328   3.7359 0.723757 0 0 0
 -8.42235 0.0402927  -1.86962 0 0 0
-7.31037  4.09826 0.116017 0 0 0
-6.70494   3.1925  1.41777 0 0 0
-8.65694  2.97976  4.20784 0 0 0
 -7.83538   3.77702 -0.342566 0 0 0
-8.28209 -1.32495 -1.47038 0 0 0
-8.64972  1.08243 -3.77531 0 0 0
-7.36898  3.66409 0.394175 0 0 0
-8.62813 0.824239 -1.79793 0 0 0
 -8.30637 -0.546936  -1.51079 0 0 0
-10.1041    2.174  2.00607 0 0 0
-7.23417  3.98389 0.336801 0 0 0
-6.76466  3.08202  1.71714 0 0 0
-6.83879   3.5239  1.16609 0 0 0
-6.99681  1.93709  2.24087 0 0 0
 -8.2969 -1.24883 -1.38843 0 0 0
-12.2253  1.96441  1.51308 0 0 0
-8.64068    1.233 -3.91183 0 0 0
-8.45347 0.413166 -1.98342 0 0 0
 -7.53796   4.26108 -0.366273 0 0 0
-7.01393  1.91252  1.90295 0 0 0
-6.67695  4.42202 0.683185 0 0 0
-6.98379   3.7211 0.842474 0 0 0
 -7.75084    3.8158 -0.217973 0 0 0
 -8.78431  0.906055 -0.998311 0 0 0
 -7.73364   3.68833 -0.117637 0 0 0
-6.55805  2.48603  2.10222 0 0 0
-6.96661  3.71668 0.842106 0 0 0
 -7.80484   3.58522 -0.153112 0 0 0
-6.89424  3.93223  0.83543 0 0 0
 -8.47295 -0.196404   -2.4049 0 0 0
-9.45805  2.71938 -2.17311 0 0 0
-8.54972 0.613829  -1.5285 0 0 0
-5.72993   8.7056  5.34868 0 0 0
-6.51099  4.07485  1.16631 0 0 0
-6.79797    3.017  3.00278 0 0 0
-7.07681  4.50612 0.338675 0 0 0
-6.56791  3.05314  1.74282 0 0 0
-8.71936  1.64683 -2.10978 0 0 0
-10.0978  3.88693 -0.32302 0 0 0
-5.50696  5.50527  7.39549 0 0 0
-6.62309  2.91825  2.84412 0 0 0
-8.48615 0.321441 -2.58949 0 0 0
-8.74201  0.16737 -2.87104 0 0 0
-6.84826  2.49006  1.56694 0 0 0
  -8.5055 -0.272415  -2.29935 0 0 0
-5.58653  5.72477  7.76498 0 0 0
-7.14019  1.77347  1.89454 0 0 0
-7.01527  1.96381  1.86071 0 0 0
-8.97821  1.49225 -1.58899 0 0 0
-7.2785 2.53533 1.15336 0 0 0
-7.33005  3.38454  1.39971 0 0 0
 -7.78652   4.00771 -0.474188 0 0 0
 -7.08787   4.69834 0.0713315 0 0 0
 -7.1607   4.1044 0.318988 0 0 0
 -7.77316   3.99825 -0.473041 0 0 0
-7.02441  3.66086 0.687565 0 0 0
 -9.51506    3.8339 -0.121874 0 0 0
-7.01627  4.03349 0.557009 0 0 0
-7.13658  3.50824 0.739065 0 0 0
-7.21127  3.74065   0.5355 0 0 0
-6.94257  4.14986 0.488086 0 0 0
-6.73955  2.89701   1.6509 0 0 0
-8.68949  2.01473 -2.76084 0 0 0
-8.58691 0.265188 -2.98648 0 0 0
 -9.43464 -0.923029  -3.32747 0 0 0
-7.25819  4.19645 0.233962 0 0 0
 -8.7214  -1.1494 -2.57309 0 0 0
-7.50867  3.05766 0.539931 0 0 0
-7.48887  7.22356  3.24579 0 0 0
-8.49665  1.67756 -3.19428 0 0 0
-7.02889  2.23802  1.51329 0 0 0
-8.42165 -1.14249 -1.96109 0 0 0
-6.71711  2.15887  2.14353 0 0 0
-9.45764  2.04361 -1.70131 0 0 0
-8.63734  1.69735 -2.62963 0 0 0
-7.10836  1.89168  1.88934 0 0 0
-8.68894  1.61115 -2.52335 0 0 0
 -9.08732   3.14542 -0.571052 0 0 0
-8.56036 0.751669 -1.88768 0 0 0
-8.73681  1.32467 -1.79921 0 0 0
-7.17766  2.73473  1.12732 0 0 0
-6.8966 3.48432 1.05686 0 0 0
-6.69968  3.18571  1.42021 0 0 0
-6.62495   2.0837  2.23682 0 0 0
 -7.63786   4.06986 -0.353289 0 0 0
-6.55369  3.93251  1.07042 0 0 0
-7.19695  2.47925  1.39526 0 0 0
-6.64411  3.65051  1.24838 0 0 0
 -8.98603 -0.499068  -3.37924 0 0 0
 -6.5572  4.43526 0.874462 0 0 0
-6.72413  4.12598 0.991684 0 0 0
-8.49034 0.218178 -1.19023 0 0 0
-6.92716  3.79118 0.789079 0 0 0
-7.49076  5.93769  3.74418 0 0 0
-7.08302  3.41967 0.745049 0 0 0
 -8.54557 -0.245329  -2.56862 0 0 0
-6.69333  3.62976  1.12604 0 0 0
-7.16227  2.31792  1.45151 0 0 0
-6.58649  3.63422  1.31306 0 0 0
-7.39903  3.98999 0.127702 0 0 0
  -9.22143 -0.0816685  -0.107609 0 0 0
-8.73506  3.17958  4.38702 0 0 0
 -7.70818   3.88454 -0.219474 0 0 0
-7.28398  3.85316  3.47931 0 0 0
-7.15658  2.67612  1.51332 0 0 0
-6.86809  4.34708 0.711724 0 0 0
-12.0461  1.23168  1.64397 0 0 0
-6.66707  3.95709 0.991641 0 0 0
-12.1457  1.25469  1.67677 0 0 0
-6.57657  3.75032  1.21381 0 0 0
-6.5245 2.32694 2.95778 0 0 0
-9.14388 0.408883 -4.25431 0 0 0
-7.3534 7.19875 3.33391 0 0 0
 -7.60675   4.55653 -0.344329 0 0 0
-6.38441  2.71709  2.01732 0 0 0
 -8.9465 -0.41815 -3.42488 0 0 0
-6.82053  3.34114  1.08757 0 0 0
-6.41056  4.01944  1.23419 0 0 0
-7.38821   3.5336 0.468082 0 0 0
-7.02852  2.69152  1.37123 0 0 0
 -6.422 3.90701 1.37163 0 0 0
-6.55068  3.79066  1.29263 0 0 0
-8.68798 0.893649 -3.61458 0 0 0
-6.66905  3.02155  1.59904 0 0 0
 -7.8027  2.37877 0.951437 0 0 0
 -7.85413   3.14986 0.0979309 0 0 0
 -8.4649 0.559712 -2.20167 0 0 0
-7.64164  3.20682 0.359596 0 0 0
-7.16791  1.75554  1.81098 0 0 0
-6.97933  2.59027  1.45989 0 0 0
-6.71459  4.68301  0.51588 0 0 0
-8.52085 0.407883 -1.29142 0 0 0
-6.89487  5.33897  4.65662 0 0 0
-8.50879 0.351333 -1.30246 0 0 0
-8.70712 0.734619 -1.24526 0 0 0
-6.61498  3.07191   1.6614 0 0 0
-7.09577  3.68953 0.686445 0 0 0
-7.02762  1.65399  2.01628 0 0 0
-7.24668  2.44365  1.25197 0 0 0
-8.53428  1.55252 -3.08321 0 0 0
-8.43556 0.339051 -2.07215 0 0 0
  -7.7347   3.90636 -0.215289 0 0 0
-6.52169  4.73134 0.664645 0 0 0
-6.66828  4.41454 0.680345 0 0 0
-8.55574 -1.71872 -1.89053 0 0 0
-6.76594  4.52807 0.487847 0 0 0
-8.73363 0.941149 -3.94633 0 0 0
-7.19484  3.95666  0.42653 0 0 0
-6.66237  3.28362  1.38769 0 0 0
-9.49446 -1.19242 -3.32644 0 0 0
-8.45297 0.443246 -1.90012 0 0 0
-7.48139    2.599 0.843284 0 0 0
-6.67818  3.63586  1.25509 0 0 0
-6.6776 3.64384 1.24468 0 0 0
-8.64729 0.881652 -3.59671 0 0 0
-7.52805  2.83574 0.570332 0 0 0
-6.88316  4.35364 0.514072 0 0 0
-6.95273  1.81984  2.03779 0 0 0
-7.11093  2.56658  1.28812 0 0 0
 -7.84201   2.87775 -0.215967 0 0 0
-7.80461  3.01376 0.252923 0 0 0
-7.02174  2.68782  1.36895 0 0 0
-6.97702  3.21738  1.34923 0 0 0
  -8.39526 -0.0879887  -0.822973 0 0 0
-7.65396  1.79772  1.21388 0 0 0
-7.75277  1.49883  1.33101 0 0 0
  -9.696  2.01479 -1.43045 0 0 0
-6.58173  2.18927  2.23051 0 0 0
-7.45652  2.15234  1.21086 0 0 0
-7.26847  2.62914  1.09089 0 0 0
-6.52751  2.18205  2.22095 0 0 0
-6.45241  2.72047  2.01167 0 0 0
-6.78516  2.69921   2.0416 0 0 0
-6.68302  3.22938  1.44367 0 0 0
-6.63316  3.08209  1.60217 0 0 0
-7.82036  2.38695 0.949807 0 0 0
 -7.65625   3.98939 -0.278697 0 0 0
-7.21957  3.75755 0.568769 0 0 0
-6.8877 5.29635 1.43773 0 0 0
-7.0991 1.77942 2.03701 0 0 0
 -8.35272 -0.295765  -1.14209 0 0 0
 -7.89177   3.17352 0.0327372 0 0 0
 -8.62321 -0.241854  -2.90231 0 0 0
  -9.0537  0.288272 -0.391219 0 0 0
-6.44613  2.68931  2.06882 0 0 0
-7.55739  2.61636 0.777014 0 0 0
-6.36472   2.6314  2.22393 0 0 0
  -8.9637 -0.923327   -2.9863 0 0 0
-7.09814  4.37914 0.110083 0 0 0
 -6.6367  4.56826 0.700706 0 0 0
-6.97823  3.72349 0.844389 0 0 0
-6.48672  3.90276  1.25575 0 0 0
 -8.43565  -0.47167 -0.843623 0 0 0
-7.86859  4.09906  4.38971 0 0 0
 -7.67236   3.79931 -0.116137 0 0 0
 -7.07291   4.51646 0.0924597 0 0 0
-8.71748  1.82791 -2.36656 0 0 0
-6.89662  4.56522 0.259017 0 0 0
 -8.85687 -0.494284  -3.16351 0 0 0
 -8.27943 -0.579087 -0.963877 0 0 0
-6.65231  4.24346  0.89361 0 0 0
-6.65216  4.06713  1.00293 0 0 0
-6.74991  2.99971  1.40705 0 0 0
 -12.423 0.936944  1.32346 0 0 0
-11.1379  2.38024  2.26985 0 0 0
-6.83628  4.17565 0.693166 0 0 0
 -9.5995 -1.18181 -3.31959 0 0 0
-6.81332  4.71919  1.67836 0 0 0
-6.70737   3.0636  1.49558 0 0 0
-6.84499  1.86336  2.22506 0 0 0
-7.6493 6.95173 2.85926 0 0 0
 -7.21014   4.38629 -0.021258 0 0 0
  -8.3956 0.0598404  -1.44684 0 0 0
-6.93686  4.13762  0.49001 0 0 0
-6.83054  2.50311  1.71517 0 0 0
-7.14877  3.51846  0.73875 0 0 0
 -7.93562   2.95277 0.0973901 0 0 0
 -7.3597  2.71824 0.921441 0 0 0
 -8.4814 0.474431 -1.78006 0 0 0
  -8.82996  -0.308637 -0.0167453 0 0 0
-7.26165   2.8481 0.968816 0 0 0
-7.21255  3.04004  1.02542 0 0 0
-6.63073  4.57526  5.32565 0 0 0
 -7.78269   3.37631 0.0828648 0 0 0
 -7.21251   4.25232 0.0647945 0 0 0
-8.59203 -0.67966 -2.63213 0 0 0
-8.28229    3.957  4.94111 0 0 0
-6.7863 1.91526 2.14697 0 0 0
-7.70333  3.26799  0.12779 0 0 0
  -6.81294    4.50228 -0.0129794 0 0 0
 -7.47091   4.22092 -0.266585 0 0 0
-7.05626  1.88934   1.7941 0 0 0
-6.45614  5.16921 0.701388 0 0 0
-6.64741  3.08463  1.53783 0 0 0
 -7.70306   3.67436 -0.111023 0 0 0
-6.83049  1.97387  2.08328 0 0 0
-7.69453   2.1871  1.01323 0 0 0
-6.60633  3.47188  1.45621 0 0 0
 -7.71587    3.9549 -0.353073 0 0 0
 -8.38602 -0.205905  -1.09444 0 0 0
-8.76975 -1.17718  -2.7066 0 0 0
-8.46382 0.291764 -2.40489 0 0 0
-6.26539  4.04304  1.23124 0 0 0
-7.37148  2.48489 0.637755 0 0 0
-6.83177  4.41703 0.563912 0 0 0
-7.38357  2.88856 0.817343 0 0 0
-6.75325  4.08854 0.905392 0 0 0
-6.5893 3.63745 1.31384 0 0 0
 -8.39079 -0.111854  -1.92398 0 0 0
-8.63782  -1.7622 -2.06191 0 0 0
-8.66093  1.03647  -1.4776 0 0 0
-8.56205  0.94124 -3.63981 0 0 0
-11.6575 0.559743    2.447 0 0 0
 -8.39677 -0.217079  -2.01914 0 0 0
 -8.41281 -0.022997  -2.02508 0 0 0
  -8.38977 -0.0324888   -1.71929 0 0 0
-7.15432  3.74204  0.66915 0 0 0
-8.54226  1.55008 -3.08343 0 0 0
 -8.81839   4.12426 -0.834003 0 0 0
 -8.41683 -0.488394  -2.00414 0 0 0
 -8.25785 -0.080598 -0.978478 0 0 0
 -9.03047  0.129852 -0.355034 0 0 0
  -11.625   4.16328 -0.767795 0 0 0
 -8.30848 0.0194136  -1.86619 0 0 0
-8.37697 0.208538 -2.00607 0 0 0
 -7.8766  3.16586 0.104654 0 0 0
 -7.6307  3.19746 0.362259 0 0 0
-8.25859  -1.1407 -1.40524 0 0 0
 -7.92389   2.94928 0.0957897 0 0 0
-7.31992  4.42406 -0.14196 0 0 0
-8.28838  3.13437 -0.17147 0 0 0
-9.30243  2.66641 -2.48771 0 0 0
-8.49081 0.444637 -2.72418 0 0 0
-12.4957 0.947995  1.33811 0 0 0
 -8.36676 0.0913045  -1.62923 0 0 0
-6.5251 3.93319 1.27106 0 0 0
-7.67529  3.22598 0.319459 0 0 0
-9.13603 -1.50915 -2.70406 0 0 0
-6.68035  3.29158  1.38861 0 0 0
-6.77954  3.11269  1.33003 0 0 0
-6.64286  2.31175  2.07431 0 0 0
-8.63746   1.1885 -3.79417 0 0 0
-6.91168   5.1337  1.65018 0 0 0
-8.58939  1.56386 -2.87968 0 0 0
-6.91075  4.37852 0.421668 0 0 0
 -8.30786 -0.768814  -1.60059 0 0 0
-7.30774  2.28995  1.18122 0 0 0
-8.47154 0.845725 -3.49694 0 0 0
-6.62394  3.99708  1.09739 0 0 0
-6.80876  2.18932  2.04961 0 0 0
 -8.5878  1.77337 -2.83353 0 0 0
-12.1643  1.25995  1.79258 0 0 0
 -8.37135 -0.544252  -2.05585 0 0 0
 -8.5375  1.40852 -3.02905 0 0 0
 -9.02458  0.499385 -0.585064 0 0 0
 -8.8278 -1.25197 -2.61459 0 0 0
-6.77691  3.23687  1.31462 0 0 0
-6.41694  3.90367   1.3709 0 0 0
-8.51955 0.408045 -1.29233 0 0 0
-8.53831 0.512011 -1.37896 0 0 0
 -6.78608   4.37669 0.0378451 0 0 0
 -7.73117   4.23779 -0.594175 0 0 0
-12.6379  1.50449  1.01275 0 0 0
-7.41847  3.82937 0.221691 0 0 0
-6.66978  4.76338 0.385311 0 0 0
-7.55056  3.31204 0.391447 0 0 0
-11.7449 0.573796  2.48436 0 0 0
-12.0793   1.4109  1.51114 0 0 0
 -7.0637  3.47746 0.855049 0 0 0
 -8.51349 -0.355443  -0.18185 0 0 0
-8.45753 0.200477 -2.47513 0 0 0
 -8.39641   4.04284 -0.880685 0 0 0
  -8.47126 -0.0924154  -0.813073 0 0 0
-7.46655  3.99863 -0.18675 0 0 0
-6.39719   4.3988  1.11878 0 0 0
-6.65204  4.25499 0.890615 0 0 0
-6.7704 4.63904 5.26672 0 0 0
 -7.81406   4.30268 -0.594594 0 0 0
 -7.57717   3.91289 -0.084274 0 0 0
  -7.5569   4.26917 -0.365852 0 0 0
-6.6699 3.62906  1.2533 0 0 0
-6.65689  3.63593  1.24078 0 0 0
-6.5891 2.66557 1.90243 0 0 0
 -8.52889 -0.540752  -2.48603 0 0 0
 -12.003 0.414819  2.10425 0 0 0
-8.53404  1.04611 -3.10414 0 0 0
-8.61859 0.559585 -1.08939 0 0 0
 -7.2663  3.99252 0.444433 0 0 0
-7.0082 2.54528 1.48761 0 0 0
-6.33184  4.65272  1.02054 0 0 0
 -8.44075 -0.759409  -2.10839 0 0 0
-6.97349  3.99731 0.659554 0 0 0
-7.19328  2.12779  1.52001 0 0 0
-6.92636   4.1726 0.675121 0 0 0
-7.62597  3.25326 0.308222 0 0 0
 -8.59801  0.189091 -0.758183 0 0 0
-8.21054  4.43433  4.44146 0 0 0
-7.17777  1.82827  2.07366 0 0 0
-6.79736  3.10742  1.42742 0 0 0
 -8.87945  0.622638 -0.786539 0 0 0
-6.59755  2.67348  1.90218 0 0 0
-8.46867 0.138615 -1.31105 0 0 0
-8.83159  1.79382 -2.07916 0 0 0
-7.32388  1.72658  1.62201 0 0 0
-6.92034   1.7439  2.29277 0 0 0
  -6.81124    4.52718 -0.0139195 0 0 0
-6.99519  3.73664 0.846405 0 0 0
-6.34083  2.68972  2.13518 0 0 0
-6.23664  3.20399  1.99634 0 0 0
-6.83366   1.8512  2.09466 0 0 0
-8.06914  1.77619  1.23349 0 0 0
-6.68214  2.77709  2.11294 0 0 0
-8.69269  1.59402 -2.15969 0 0 0
  -8.69785 -0.0225155   -3.18651 0 0 0
 -8.81291  0.241404 -0.412464 0 0 0
-6.94122  3.19576  1.33757 0 0 0
-8.76156  1.05136 -1.25275 0 0 0
-8.56497  1.30896 -3.44878 0 0 0
-6.38349  2.61263  2.10407 0 0 0
-7.12067  2.85172  1.11296 0 0 0
-7.21844  4.00326 0.445538 0 0 0
-7.12473  3.50746 0.732917 0 0 0
 -8.30392 -0.656698  -1.56528 0 0 0
-6.71913  2.96585  1.54786 0 0 0
-7.64569  3.89697  4.23825 0 0 0
  -7.23299    4.22684 -0.0132521 0 0 0
-12.3472  2.00413  1.00735 0 0 0
-7.15031  1.85375  1.92163 0 0 0
  -8.3991 -0.209178  -2.04497 0 0 0
-7.73404  2.34545 0.933438 0 0 0
-12.5607  1.59899 0.812466 0 0 0
-8.30469 -1.23399 -1.44243 0 0 0
-7.42599  3.23473 0.530732 0 0 0
-7.17041  2.99851 0.989402 0 0 0
-7.61653  3.35213 0.267991 0 0 0
-8.39871 0.116987 -1.59465 0 0 0
-7.0435 3.19178 1.05139 0 0 0
-6.62944  2.49754  2.00447 0 0 0
-7.64817  3.21065 0.360502 0 0 0
 -7.2523  3.61565 0.569033 0 0 0
 -7.89234    3.5423 -0.347311 0 0 0
-7.66456  1.36227  1.72719 0 0 0
-7.80444  2.38137 0.942983 0 0 0
-7.03052  2.61921  1.38092 0 0 0
-7.13255  1.76919  1.89366 0 0 0
-7.16226  2.52279  1.27259 0 0 0
 -8.5401  1.54968 -3.08533 0 0 0
-7.63199  3.30506 0.222665 0 0 0
-6.6581 2.31844 2.07728 0 0 0
   -8.3868 0.00718944   -1.71956 0 0 0
 -8.39267  -1.04671 -0.210047 0 0 0
-8.49421 0.319032 -1.04006 0 0 0
 -8.32568 -0.673541  -1.45195 0 0 0
 -8.39143 0.0628876  -2.04552 0 0 0
-7.66362  2.17282  1.00403 0 0 0
 -8.68733  0.233008 -0.685064 0 0 0
-12.1911  1.57759  1.52164 0 0 0
  -8.4109 -0.112063  -1.08516 0 0 0
-6.97121  5.53763  2.08305 0 0 0
-7.14373  4.31283  0.32038 0 0 0
 -8.90683  0.255214 -0.409729 0 0 0
 -8.11226   4.21466 -0.874719 0 0 0
-7.70476  3.39613 0.515013 0 0 0
-6.51593  4.87415 0.525839 0 0 0
-8.52336  1.09539 -2.90192 0 0 0
    -12.215     5.37729 -0.00652437 0 0 0
-7.17535  2.55561  1.27117 0 0 0
-8.04582 0.649134 -4.54691 0 0 0
  -7.21514    4.39169 -0.0200353 0 0 0
-12.3378  2.44661 0.985957 0 0 0
-6.76893  4.27452   0.7244 0 0 0
-6.41351  4.41503  1.12167 0 0 0
-6.65141  4.05189 0.993821 0 0 0
 -8.38167 -0.119128  -1.08795 0 0 0
-6.94648  4.61965 0.135905 0 0 0
-6.48348  4.78667 0.724473 0 0 0
-8.33106  4.25928  4.04844 0 0 0
 -6.85575   4.46206 -0.103904 0 0 0
-7.03577  4.22703 0.386253 0 0 0
-6.79172  4.34952 0.654035 0 0 0
 -8.2888 -1.29628 -1.57278 0 0 0
-6.56748  4.44295 0.876581 0 0 0
-6.47891  4.27417  1.03752 0 0 0
-7.43215  2.24457  1.39538 0 0 0
-6.76404  4.17751 0.792165 0 0 0
-6.70164  2.54397  1.86533 0 0 0
-6.91518  4.07527 0.691504 0 0 0
-8.59603   1.2434  -3.5952 0 0 0
-6.81106  4.04838  0.83756 0 0 0
-11.6641 0.606265   2.5471 0 0 0
-7.85306  3.13721 0.115058 0 0 0
-7.81947  2.74881 0.666073 0 0 0
-5.61063  5.74814  7.38893 0 0 0
-7.11286    7.212  3.41854 0 0 0
-6.83177  4.69017 0.262965 0 0 0
-8.49156 0.425603 -2.75538 0 0 0
 -7.57057   4.27395 -0.492749 0 0 0
 -8.08634   4.19102 -0.829152 0 0 0
 -7.65429   4.15669 -0.481996 0 0 0
  -7.13958    4.52186 -0.0111836 0 0 0
-6.91248  4.64376 0.214388 0 0 0
-6.81356  1.96472  2.07524 0 0 0
 -6.9865  4.57127 0.136214 0 0 0
-6.48864  2.79478  2.10091 0 0 0
-6.92755  2.85515  1.39292 0 0 0
-6.80098  2.47689  1.69925 0 0 0
  -8.70048 -0.0210495   -3.15418 0 0 0
-6.74649  2.46063  1.85654 0 0 0
-6.56664  3.04956  1.71797 0 0 0
-6.89757  2.55838  1.63184 0 0 0
 -8.42683   4.14302 -0.798493 0 0 0
-6.78971  3.19993  1.51829 0 0 0
  -8.39506 -0.0288281   -1.27068 0 0 0
-7.37225  3.66744 0.395566 0 0 0
-6.67041  3.02351   1.6005 0 0 0
-7.41568  1.78159  1.49786 0 0 0
-8.50491 0.659241 -1.87373 0 0 0
-8.63778 -1.79335 -1.95543 0 0 0
-7.56918  1.95686  1.16228 0 0 0
-6.56845  2.69316  1.96478 0 0 0
-6.9604  2.8406 2.04321 0 0 0
-7.9269  3.7618 4.79806 0 0 0
-6.88654  2.57775  1.85397 0 0 0
-7.21269  3.28524 0.847851 0 0 0
-6.81546  2.59315  1.97608 0 0 0
-6.8261 2.54406  1.9513 0 0 0
-8.47429 0.139593 -1.31202 0 0 0
-7.39326  7.01608  2.85597 0 0 0
-6.87356  2.50497  1.90518 0 0 0
-6.78883  2.17247  2.03696 0 0 0
 -13.0631   3.31986 -0.437311 0 0 0
 -8.32771  -1.04699 -0.220493 0 0 0
-7.01043  4.11729 0.499138 0 0 0
-6.79648  3.41461   1.1794 0 0 0
  -7.5978   3.63107 0.0987229 0 0 0
-6.55804  3.80223  1.94458 0 0 0
-6.61936  4.73246 0.373613 0 0 0
-7.66881  3.99918 -0.27926 0 0 0
-6.78219  3.09297  1.42372 0 0 0
-6.71514  3.20097   1.4218 0 0 0
-8.17811 0.708998 -4.61755 0 0 0
-6.72411  2.84089   1.2734 0 0 0
-8.72508 -0.92473 -2.65912 0 0 0
-6.73175  2.89773  1.64542 0 0 0
-6.75795  2.69982  1.65612 0 0 0
 -8.30989 -0.420262  -1.00183 0 0 0
-6.87936  2.38685  1.65505 0 0 0
  -7.33927    4.23623 -0.0614172 0 0 0
-6.84632  2.31689   1.7838 0 0 0
-7.13929  4.25353 0.239336 0 0 0
-6.42009  4.12219  1.04097 0 0 0
-6.89687  3.56063  1.01542 0 0 0
-6.02481  2.03232  2.55224 0 0 0
-6.75959  3.16948  1.43075 0 0 0
-8.55519  -1.6968 -1.84201 0 0 0
-8.67057  2.08487 -3.11007 0 0 0
-8.48697 0.490251 -1.77766 0 0 0
-7.13744  2.43266  1.35875 0 0 0
-6.80605  2.92868  1.48813 0 0 0
-8.83828  1.10589 -1.50771 0 0 0
-6.63194  3.00033  1.67567 0 0 0
-8.54977  1.58119 -3.20735 0 0 0
-6.89338  2.12273  1.89514 0 0 0
-8.41561 0.250848 -1.93729 0 0 0
-6.87749  2.78111  1.66451 0 0 0
   -7.12337     4.49331 -0.00988659 0 0 0
 -7.2861  4.40435 -0.15766 0 0 0
-6.6525 1.79529 2.37503 0 0 0
-7.14261  2.49751   1.3269 0 0 0
-6.56644  3.67457  1.36452 0 0 0
-7.32003  3.57489  0.46284 0 0 0
-8.99338 -1.40938 -2.67208 0 0 0
-9.35407  1.29438 -1.47273 0 0 0
-7.82463  3.16056  4.85768 0 0 0
-6.77588   3.2306  1.31803 0 0 0
-6.4645  4.2593 1.03349 0 0 0
-6.74237  4.66466 0.254926 0 0 0
-7.21689  2.26047  1.36431 0 0 0
 -12.258  3.35765 -1.19053 0 0 0
  -6.914  4.06744 0.683035 0 0 0
 -8.10348   3.20083 -0.192386 0 0 0
-6.96264   5.1567  1.65983 0 0 0
-11.1316  2.60707  1.97135 0 0 0
-7.49712  3.18884  0.43744 0 0 0
 -7.76601   3.30846 0.0435349 0 0 0
-6.86979  4.29488  5.07171 0 0 0
-8.75712  3.02736  4.27886 0 0 0
-8.61554  1.80505  -2.8249 0 0 0
-8.69643  1.93288 -2.50106 0 0 0
 -8.27568 -0.318415  -1.33157 0 0 0
-8.3866 3.85707 5.12456 0 0 0
-12.1697  1.62366  1.30266 0 0 0
-8.58242 0.884788 -1.64378 0 0 0
-8.43079 0.298093 -1.66497 0 0 0
-6.89762  2.35561  1.71405 0 0 0
-7.21709   3.7445 0.536348 0 0 0
-8.42028 0.233794 -1.70826 0 0 0
-6.65409  2.06888  2.14883 0 0 0
 -7.74932   3.48913 -0.105466 0 0 0
-11.1097  2.49344  2.16433 0 0 0
-7.80341  3.01837 0.294921 0 0 0
-7.31276  3.94209 0.201817 0 0 0
-6.90775  4.47059 0.397498 0 0 0
-6.7352 3.83916 1.04964 0 0 0
-6.91719  4.07825 0.692851 0 0 0
-12.3602  1.97754 0.987921 0 0 0
-6.76016  3.00725  1.41154 0 0 0
 -7.80377   4.07773 -0.560806 0 0 0
   -8.43311 -0.00286364    -2.09264 0 0 0
-7.34992  2.06147  1.41165 0 0 0
  -7.70711    3.69614 -0.0226161 0 0 0
 -7.56629   4.28152 -0.368943 0 0 0
-7.03089  1.87566  1.78215 0 0 0
 -12.072 0.426655  2.12765 0 0 0
-6.9552 2.41238 1.58239 0 0 0
 -7.77593   4.07818 -0.609252 0 0 0
-6.67288  3.96735 0.997785 0 0 0
 -8.4071 -1.14253 -1.96083 0 0 0
 -7.88491   4.03235 -0.613105 0 0 0
-7.47539  2.06022  1.22341 0 0 0
-6.43741  4.72259 0.923176 0 0 0
 -12.7819 0.0759354   -5.9362 0 0 0
-6.71354  2.85966    1.667 0 0 0
-8.43775 0.300936  -1.6661 0 0 0
-6.65671  4.35303 0.416394 0 0 0
-7.97983   1.7413  1.22549 0 0 0
-6.76906  2.71095  1.65922 0 0 0
-6.58876  3.58495  1.21975 0 0 0
-6.54042  3.84112  1.23887 0 0 0
  -8.4093 -0.215109  -1.03575 0 0 0
-6.76288  3.07735  1.71351 0 0 0
-7.28573  2.29442  1.49456 0 0 0
-8.43322  1.49682  -3.1614 0 0 0
 -8.62186 -0.675696  -2.63791 0 0 0
-7.08138  4.36891 0.122954 0 0 0
-7.25705  4.02826 0.267162 0 0 0
-6.68389  2.36936  1.30106 0 0 0
-8.26632 -1.24973 -1.50467 0 0 0
-7.21155  2.25503  1.36389 0 0 0
-7.2592 2.15591   1.439 0 0 0
 -13.2098   4.49218 -0.859659 0 0 0
-8.24649 -1.14005 -1.40495 0 0 0
-6.99436  4.63113  0.13162 0 0 0
-6.29344  2.56641  1.89351 0 0 0
 -8.34393 -0.393372  -1.00727 0 0 0
-12.0558  0.42192  2.12216 0 0 0
-7.14168  2.59269  1.27979 0 0 0
-8.83989  1.79773 -2.07807 0 0 0
-8.26694 0.101167  -1.5724 0 0 0
-7.47693  2.46263 0.938156 0 0 0
-6.35054  2.70574  2.13588 0 0 0
-8.43368 0.186321 -1.36812 0 0 0
 -8.44941 0.0601032   -1.1694 0 0 0
-6.5806 3.75511 1.21176 0 0 0
-6.93524  2.12393  2.09708 0 0 0
 -7.57177    4.2674 -0.495279 0 0 0
-6.88901  3.65997   1.1128 0 0 0
-8.45812 0.362878 -1.74086 0 0 0
-7.39946  1.78203  1.49515 0 0 0
-6.84419  2.72327  2.02636 0 0 0
-7.10734  1.74812   2.3543 0 0 0
-8.46312 0.437257 -1.80149 0 0 0
-6.71371   3.2011  1.42237 0 0 0
 -8.13166 -0.101697 -0.981872 0 0 0
-7.17577  3.29774 0.646277 0 0 0
-12.1906 0.579981  2.32042 0 0 0
-8.44001  0.37504 -1.77411 0 0 0
-6.5864 3.27733 2.60312 0 0 0
-6.60041  1.99433  2.28528 0 0 0
-8.47857  0.43591 -1.72615 0 0 0
-6.79702  3.59893  1.09463 0 0 0
-6.67247  3.02618  1.60251 0 0 0
-12.6936  1.23684 0.964293 0 0 0
 -8.59456 -0.922118  -2.43711 0 0 0
-8.50732 0.430797 -2.75842 0 0 0
-7.60338  2.10949  1.13317 0 0 0
 -7.85886   3.15789 0.0701172 0 0 0
-7.80444  3.43097  4.88088 0 0 0
-6.99388  1.93045  1.86655 0 0 0
-7.14356  1.78013  1.81836 0 0 0
-7.11704  2.55737  1.31178 0 0 0
-8.42785 0.345584 -1.91631 0 0 0
 -7.90591   3.18361 0.0321779 0 0 0
-8.73347 0.827674 -1.25761 0 0 0
-6.97773  4.00367 0.660399 0 0 0
   -8.46897 -0.00679944    -1.91848 0 0 0
-7.14051   4.2551 0.239388 0 0 0
-7.12923  1.91876  1.69552 0 0 0
-12.2508  2.41337 0.967001 0 0 0
-6.39239  2.72508  2.02458 0 0 0
-8.52004  0.22368 -2.18131 0 0 0
 -7.21174   4.24926 0.0648358 0 0 0
 -13.2004   5.01499 -0.393328 0 0 0
-8.47532 0.552734 -2.06265 0 0 0
-8.55396  1.43266 -2.77776 0 0 0
 -8.38813 0.0940309  -1.99741 0 0 0
-12.0977  1.97982  1.32819 0 0 0
-6.92378  3.62499 0.998148 0 0 0
-12.3376  2.44536  0.98357 0 0 0
-7.75033  2.62418 0.638212 0 0 0
 -8.30823 -0.500956  -1.31099 0 0 0
-7.61704  3.53991  0.13696 0 0 0
-11.6817 0.561098  2.45552 0 0 0
-5.64984  5.80019  7.45305 0 0 0
-12.2299  3.48951 -2.06899 0 0 0
 -9.39792 -0.422338  -3.67084 0 0 0
-6.44151  3.91224  1.27946 0 0 0
-8.54426 0.164581 -2.88968 0 0 0
  -8.62496 -0.0531675   -2.91413 0 0 0
-8.44609 0.429635 -1.79961 0 0 0
-8.40804 0.123275  -2.0457 0 0 0
-6.79168  1.91898  2.14772 0 0 0
-9.00247  2.24464 -2.97467 0 0 0
-7.17311  4.30063 0.169742 0 0 0
-8.55277  1.50728 -3.37337 0 0 0
 -8.46761 -0.817828  -2.20467 0 0 0
-6.97954  4.15026 0.566796 0 0 0
-6.59223  4.02538 0.995859 0 0 0
 -8.71586 -0.875669  -2.72389 0 0 0
-6.62503  4.55935 0.699994 0 0 0
-6.73041    4.243 0.719509 0 0 0
-6.89514   3.4842  1.05639 0 0 0
-6.50906  3.35924  1.60022 0 0 0
-6.52219   4.6524 0.726632 0 0 0
  -12.163   4.28034 -0.895785 0 0 0
-7.22525  1.79842  1.72554 0 0 0
-8.33074   -0.706 -1.52767 0 0 0
  -7.11712    4.48329 -0.0101181 0 0 0
-7.14506  4.27773 0.176911 0 0 0
 -8.38555 -0.361905  -1.29056 0 0 0
 -8.7002  1.09069 -3.88558 0 0 0
-7.70996  6.99935  3.25479 0 0 0
 -7.62381   3.64552 0.0880636 0 0 0
-7.18493  3.29783 0.748006 0 0 0
 -7.86252   3.15649 0.0684547 0 0 0
-6.50139  5.21545 0.891494 0 0 0
 -8.74834 -0.389355  -3.08312 0 0 0
 -8.87152   4.15242 -0.833931 0 0 0
-12.2687  1.64781  1.32358 0 0 0
-12.2346  0.32937   2.2686 0 0 0
 -7.30654    4.4144 -0.145829 0 0 0
 -7.37381   4.11909 -0.345889 0 0 0
-6.96012  2.11579   1.8059 0 0 0
 -7.21874   4.25586 0.0658816 0 0 0
-6.79562  3.46861 0.963526 0 0 0
-6.81224   2.4909  1.70857 0 0 0
-6.66078    2.324    2.085 0 0 0
-6.80148  1.94094  2.14724 0 0 0
-8.99062  -0.2522 -3.56722 0 0 0
-6.72188  2.38431    1.941 0 0 0
 -8.4927 0.585412 -1.00726 0 0 0
-6.68712  2.42784  1.94014 0 0 0
-6.42122  3.17024  1.75005 0 0 0
-6.87002  1.82836   2.0332 0 0 0
-6.72229  2.00087   2.1688 0 0 0
-6.84692  4.46117  5.02272 0 0 0
-7.04208  4.40785 0.206281 0 0 0
-6.51556   2.1243  2.23482 0 0 0
 -8.58032 -0.281463  -2.77248 0 0 0
-6.59979  4.95456  0.50645 0 0 0
 -7.43302   4.33862 -0.268639 0 0 0
 -9.0055 -1.35079 -2.72308 0 0 0
-7.30337  2.44826  1.13651 0 0 0
-8.78921 0.758447 -1.07243 0 0 0
-6.38834   2.7208  2.02477 0 0 0
-8.56902  1.52376 -3.51123 0 0 0
-6.66678  2.67557  2.03922 0 0 0
-8.52126    1.385 -2.93596 0 0 0
-7.45028  3.51062 0.431764 0 0 0
-6.54438  3.81984  1.71764 0 0 0
 -7.72439   4.72311 -0.305101 0 0 0
-8.44415 0.116685 -1.39958 0 0 0
-7.47514  2.07007   1.2031 0 0 0
-8.57719   1.1496 -3.22202 0 0 0
 -7.3892  3.38275 0.515737 0 0 0
-8.60976  1.31072 -3.60439 0 0 0
-8.55335  1.42175 -3.40555 0 0 0
-8.56415  -1.3058 -2.24585 0 0 0
-6.55016  1.89265  2.38765 0 0 0
 -8.50212  0.308969 -0.903787 0 0 0
-11.0493  2.57828  1.93698 0 0 0
  -8.566 0.420769  -1.3982 0 0 0
 -7.72269   3.95841 -0.354264 0 0 0
-6.42104   3.0686  2.51709 0 0 0
-8.66316 0.944609 -1.31965 0 0 0
-7.29843  1.72247  1.72526 0 0 0
-8.44237 0.236911 -1.49727 0 0 0
-7.20827   1.7922  1.71713 0 0 0
-8.42347 0.632305 -1.45485 0 0 0
 -13.3162   3.93843 -0.860188 0 0 0
 -7.75105   4.11643 -0.518339 0 0 0
-8.54111 0.238509 -1.09472 0 0 0
  -7.6967   4.02663 -0.404331 0 0 0
-6.57947  2.32666  2.23539 0 0 0
-6.50057  4.10577  1.11296 0 0 0
-8.56575 -1.71752 -1.88265 0 0 0
-6.65565  2.22626  2.31339 0 0 0
-6.4096 4.02235 1.23594 0 0 0
-6.64507  3.62976  1.23843 0 0 0
 -6.5604  4.44104 0.877367 0 0 0
-12.065 1.93022 1.49079 0 0 0
-6.83302  3.51167  1.16928 0 0 0
-7.9127 6.90222 2.46439 0 0 0
-7.21336  2.83875     1.06 0 0 0
 -8.2911 -1.13492 -0.32361 0 0 0
-8.51606 0.511445 -1.63062 0 0 0
-7.33375  3.96245 0.193335 0 0 0
-6.81909  4.74374 0.265408 0 0 0
-7.12515  1.76747  1.88779 0 0 0
  -8.3116 -0.471157  -1.60392 0 0 0
-6.87768  4.34921 0.514422 0 0 0
-8.73752  1.70318 -2.24505 0 0 0
 -8.4592 0.364126 -1.76167 0 0 0
-7.17061  2.99919 0.988919 0 0 0
-6.42147  3.90934  1.37393 0 0 0
-8.66197  0.97245 -1.55825 0 0 0
-11.0788  2.27138  2.13204 0 0 0
-9.41451   1.1087 -1.40978 0 0 0
-7.3064  2.2848 1.18237 0 0 0
-6.77867  2.03091  2.19608 0 0 0
 -7.34208   4.32143 -0.371009 0 0 0
-6.41445  2.82631  2.46985 0 0 0
 -8.46537 -0.744123   -2.2499 0 0 0
-6.70958  4.32375 0.727752 0 0 0
  -7.7599   3.79643 -0.338769 0 0 0
-7.55597  2.09427  1.10746 0 0 0
 -8.54919 -0.393417  -2.63508 0 0 0
 -7.5711  3.39388 0.300664 0 0 0
-8.29182 -1.24856 -1.50339 0 0 0
-7.21103  2.62973  1.27465 0 0 0
-6.80055  4.59252 0.350952 0 0 0
-8.76813  -1.8274 -2.13051 0 0 0
-6.73425   4.0756 0.902254 0 0 0
-7.06053  3.14487  1.45228 0 0 0
-8.40457 -1.14298 -1.87405 0 0 0
-9.04922  4.36385 -0.51716 0 0 0
-6.73364  2.17712  1.89846 0 0 0
-12.4262 0.937159  1.32502 0 0 0
-8.53425 0.616238 -1.63607 0 0 0
-7.41727  3.73531 0.250142 0 0 0
-6.81113  3.43057  1.18724 0 0 0
-7.66168  2.16277  1.00113 0 0 0
-8.90363  1.12988 -1.31215 0 0 0
-8.5435 0.10605 -0.7453 0 0 0
-8.57927 0.637154 -1.45341 0 0 0
 -8.39553 -0.133463  -2.07653 0 0 0
-6.82751  2.31268  1.85145 0 0 0
-12.0058  1.49878  1.66562 0 0 0
  -8.39803 0.00212488   -1.40121 0 0 0
 -8.35632 -0.185247    -1.525 0 0 0
-6.85854   1.9772  1.94508 0 0 0
-6.67954  5.31932   4.9521 0 0 0
-8.43823 0.412084 -1.98439 0 0 0
-6.62258   1.9136  2.41984 0 0 0
-8.47549 0.411735 -2.50402 0 0 0
-8.55202 -0.87155 -1.74775 0 0 0
-8.36957 -0.26175 -1.93565 0 0 0
 -8.39859 -0.494689  -2.01959 0 0 0
-6.44186   4.1064  1.01601 0 0 0
-6.90682  4.37593 0.422078 0 0 0
-11.6888 0.763727  2.56895 0 0 0
-6.98121  4.59268 0.056544 0 0 0
-8.83345  2.74913 -2.36169 0 0 0
-6.89811   3.2216  1.10319 0 0 0
-6.64255  2.67833  2.11126 0 0 0
-6.78441  2.63391  1.60067 0 0 0
 -7.65819    4.1675 -0.485382 0 0 0
-6.81852  3.45438  1.17311 0 0 0
-8.63613  1.81207 -2.91911 0 0 0
-8.51289 0.579103 -1.76309 0 0 0
-8.63836  1.70148 -2.63172 0 0 0
-8.74352  1.15191 -4.12511 0 0 0
 -8.54851  0.185376 -0.977332 0 0 0
-8.43976 0.338039 -2.07293 0 0 0
-8.52227  0.95738 -2.36082 0 0 0
-7.30171  1.72072   1.7226 0 0 0
 -8.20896 -0.836306  -0.95168 0 0 0
 -7.87241   3.20831 -0.207239 0 0 0
  -8.61911 -0.0627996   -2.97485 0 0 0
 -8.6016 0.791392 -1.79031 0 0 0
 -6.9604  3.98908 0.654272 0 0 0
 -8.96343 -0.917443   -3.0016 0 0 0
-7.40836  2.46449  0.80669 0 0 0
-7.57347  1.89768  1.24671 0 0 0
 -7.68318   4.19045 -0.487393 0 0 0
-7.66608  3.22014 0.318576 0 0 0
 -7.49783   4.24101 -0.264759 0 0 0
-6.77958  1.91829  2.13938 0 0 0
 -7.73705   4.05543 -0.404214 0 0 0
-8.80098  1.06806 -4.22118 0 0 0
  -8.541 0.619569  -1.6376 0 0 0
 -9.4555 -2.44016 -1.97451 0 0 0
 -8.33192 -0.780675  -1.74175 0 0 0
 -7.82546   3.93478 -0.562871 0 0 0
  -7.56064    3.87439 -0.0199958 0 0 0
-6.5019  2.3037 2.23226 0 0 0
-8.54949  0.16408  -2.8916 0 0 0
-6.37728  4.97077 0.695472 0 0 0
 -8.65412 0.0893087   -3.2116 0 0 0
-7.29569  3.12155 0.736954 0 0 0
-6.76271  2.48425  1.79888 0 0 0
 -7.71059   4.03519 -0.403869 0 0 0
 -7.40812   4.03718 0.0352674 0 0 0
-9.26046 -2.15453 -2.16086 0 0 0
 -8.5233 0.287668 -2.74295 0 0 0
 -7.63652   3.97451 -0.287355 0 0 0
-9.53599  2.87112 -2.36642 0 0 0
-7.01622  2.60688  1.37553 0 0 0
 -7.5392  3.67659 0.130201 0 0 0
-6.45705  4.29944  1.11553 0 0 0
-7.12853  3.45154 0.745917 0 0 0
-9.07104 -1.32093 -2.61116 0 0 0
-7.04848   3.6174 0.812203 0 0 0
-6.57551  2.67093  2.07074 0 0 0
-12.0178  1.92144  1.46473 0 0 0
-6.35322  5.02931 0.700556 0 0 0
 -9.31107 -0.514406  -3.69185 0 0 0
 -8.27361  -0.58004 -0.963127 0 0 0
-12.0182  2.13214  1.30676 0 0 0
-8.70323  1.83856 -2.57728 0 0 0
-6.79112   4.8524  1.66923 0 0 0
-12.0726  1.23051  1.77786 0 0 0
 -7.87403   3.32503 -0.110196 0 0 0
-10.099 2.16964 2.12509 0 0 0
-7.41822   3.7014 0.325592 0 0 0
-7.04128  3.19339   1.0521 0 0 0
-7.72991  1.35445  1.73074 0 0 0
-8.57913 0.609471 -1.51016 0 0 0
-7.19552  2.24226  1.48185 0 0 0
 -7.30834   4.42288 -0.155723 0 0 0
-6.77678  4.40387 0.460677 0 0 0
 -7.77564   3.47269 -0.364677 0 0 0
 -7.56629   3.92419 0.0285916 0 0 0
 -13.2638   4.70615 -0.868196 0 0 0
 -7.75318   2.89773 -0.164598 0 0 0
-8.55995  1.54646 -3.74226 0 0 0
 -9.96841 -0.131473  -4.41793 0 0 0
-8.81931 -1.25355 -2.61055 0 0 0
-12.0874  3.43379  -1.4752 0 0 0
 -7.90112   3.34799 -0.111536 0 0 0
 -8.58171  0.191439 -0.443832 0 0 0
-9.79171  2.27929 -1.84335 0 0 0
-8.63811  1.71482 -2.70215 0 0 0
-7.14721  4.18034 0.290907 0 0 0
-8.54209 0.286938 -1.24377 0 0 0
-9.42035  1.44904 -1.53746 0 0 0
-8.43323  0.26544 -1.77767 0 0 0
 -8.01395   3.99997 -0.696138 0 0 0
-7.33896  3.19388 0.587247 0 0 0
 -7.4051   3.7486 0.166521 0 0 0
 -8.21537  -1.32391 -0.591354 0 0 0
-6.91559  4.91986 0.530315 0 0 0
-6.5598 2.22272 2.19865 0 0 0
-8.63992 -1.19388 -2.42975 0 0 0
-8.69627  1.09367 -3.92152 0 0 0
-8.65927  2.08417 -3.10788 0 0 0
-5.44693  6.74781  7.03776 0 0 0
  -8.476 0.435836 -1.72492 0 0 0
 -8.30402 -0.266483  -2.79482 0 0 0
-8.41789 -1.50864 -1.79383 0 0 0
-7.24238   2.4178  1.29305 0 0 0
-7.15083  2.33111  1.52203 0 0 0
 -8.64463 -0.430913  -2.84397 0 0 0
 -7.88307   3.41055 -0.109794 0 0 0
-8.50027   1.0404 -3.03901 0 0 0
-9.31786 -0.96436  -3.0705 0 0 0
 -12.533  3.57954 -1.21345 0 0 0
-7.54183  1.98279   1.1988 0 0 0
-8.54059 0.238464 -1.09767 0 0 0
-8.54186 0.522965 -1.37592 0 0 0
 -8.5333  1.30668 -3.07063 0 0 0
-8.54961  1.35948 -3.45749 0 0 0
-7.35675  2.68378  0.90901 0 0 0
-11.9685  1.89214  1.38918 0 0 0
-12.8212  1.12505  1.11127 0 0 0
 -8.66175 0.0921918    -3.217 0 0 0
-12.5524 0.742349  1.34183 0 0 0
-8.66265 0.948663  -3.7594 0 0 0
-9.10837 0.595958 -4.13238 0 0 0
-8.56578  1.61395 -2.82037 0 0 0
-6.52817  2.64866  2.04068 0 0 0
  -8.4337 0.0154375   -1.0313 0 0 0
-6.69109  2.50278  2.05762 0 0 0
-8.79833  1.76179  -2.2104 0 0 0
-8.71581  1.82652 -2.36846 0 0 0
-7.17799  3.29672 0.643458 0 0 0
-13.8443  4.41962 -1.42363 0 0 0
-8.70589  1.76144 -2.54843 0 0 0
-7.51174  2.58869  0.68865 0 0 0
 -8.31845 -0.373891  -1.55397 0 0 0
-8.41884 0.113773 -1.31131 0 0 0
-12.2073  1.86914  1.37543 0 0 0
 -8.50052 -0.721662  -2.35898 0 0 0
-8.46794 0.101462  -2.0685 0 0 0
-8.62894 -2.19729 -1.59077 0 0 0
-6.64842  4.89418 0.347374 0 0 0
-9.31783  2.51273 -2.34298 0 0 0
-7.21076  2.23084  1.43549 0 0 0
-6.99398  4.31111 0.372439 0 0 0
-12.8218  1.73561 0.570387 0 0 0
-7.55449  4.12874 0.199708 0 0 0
-7.71265  3.88649  4.31562 0 0 0
-12.1333  1.57429  1.25732 0 0 0
  -8.49705 -0.0289719  -0.673984 0 0 0
-8.46892  0.60947 -2.30575 0 0 0
-9.35923  1.42871  -1.5333 0 0 0
-8.64724  0.86146   -1.862 0 0 0
-8.54715  1.06006 -3.04559 0 0 0
-6.96213  2.06331  1.84066 0 0 0
-7.63586  3.19947 0.305018 0 0 0
  -8.558  1.35648 -3.38474 0 0 0
-6.52092  2.73084  2.76312 0 0 0
-7.04992   1.7759  2.22731 0 0 0
-8.54713 0.670944 -1.57744 0 0 0
-11.9642  1.48859  1.65845 0 0 0
-6.76056   1.8964  2.30402 0 0 0
 -8.50979 -0.261608  -2.44688 0 0 0
-6.44702  4.24375  1.15805 0 0 0
 -7.83835   3.37579 -0.108174 0 0 0
 -13.3182   3.85619 -0.832029 0 0 0
-7.78816  3.03803 0.208784 0 0 0
-8.30359 0.841017 -4.71046 0 0 0
-9.16259  1.08256 -4.47245 0 0 0
 -8.5832  1.10373 -3.56948 0 0 0
-9.65998 -0.48139  -3.8046 0 0 0
-7.47068  4.36868 -0.26629 0 0 0
-13.1474  4.50389 -1.08403 0 0 0
 -7.86926   3.04113 0.0581661 0 0 0
-8.70374  1.53291 -2.10267 0 0 0
-7.75987  2.91041 -0.25332 0 0 0
-9.19522 0.421823 -4.27419 0 0 0
  -7.9145   3.07491 0.0641539 0 0 0
-6.90692  2.03994  1.82123 0 0 0
 -8.28986  -1.13529 -0.322107 0 0 0
-7.2085 1.85318 1.68885 0 0 0
-7.58372  1.90285  1.18708 0 0 0
-7.96357  6.72673  2.39961 0 0 0
 -8.13195  -1.13486 -0.418126 0 0 0
  -8.7528 0.0748486  -3.32633 0 0 0
-7.23591  2.42215  1.29372 0 0 0
 -7.50056   3.87568 0.0379921 0 0 0
 -13.3365   3.83763 -0.838527 0 0 0
-8.72435   -1.455  -2.3356 0 0 0
-6.96481  3.01893  1.18642 0 0 0
-8.72055 -1.33746 -2.43242 0 0 0
 -7.43272   4.48226 -0.198422 0 0 0
-7.19793  2.42777  1.32599 0 0 0
-8.41532 0.162313 -1.73401 0 0 0
-8.49268 0.663267  -1.8806 0 0 0
 -7.32132   4.20183 0.0925971 0 0 0
 -7.83691   3.60195 -0.265911 0 0 0
-7.22009  4.13465 0.242608 0 0 0
-7.91574   4.5128  4.27527 0 0 0
-7.21707  2.49919  1.23754 0 0 0
-8.58354  2.87232  4.23596 0 0 0
-7.45304  2.13854  1.27211 0 0 0
-11.5671 0.632595  2.37418 0 0 0
 -7.73632   4.02064 -0.578366 0 0 0
-8.44586  -1.1826 -2.03418 0 0 0
-8.50551  0.82668 -1.83849 0 0 0
  -7.8406   3.50778 -0.353946 0 0 0
 -7.56179   3.80588 -0.818537 0 0 0
 -7.68811   3.66377 -0.115285 0 0 0
-7.1947  2.0675 1.49151 0 0 0
 -8.13539   3.02793 -0.308026 0 0 0
-7.09807  1.99932  1.68232 0 0 0
-7.52041  7.17316  2.91706 0 0 0
-7.83218   3.4596 -0.26095 0 0 0
-6.63734  3.96805 0.970114 0 0 0
-9.55586  2.24792 -1.46475 0 0 0
-6.32623  2.80096  2.37434 0 0 0
-8.56268  1.13843 -3.21663 0 0 0
-7.15581  2.15673  1.55101 0 0 0
-7.24512  2.16875  1.54096 0 0 0
-8.45167 -1.95893 -1.42555 0 0 0
 -13.7049   4.96277 -0.728045 0 0 0
-9.33711  1.43564 -1.65997 0 0 0
-8.77223  1.47359 -2.55866 0 0 0
-8.52952 0.663083 -1.57891 0 0 0
 -13.2585   3.89289 -0.854301 0 0 0
 -8.7558  0.99708 -3.73328 0 0 0
-8.50123 0.150431 -2.67207 0 0 0
-6.35134  4.01666  1.33835 0 0 0
 -7.66904   3.66688 -0.023495 0 0 0
   -7.827   3.56878 -0.202344 0 0 0
 -7.73769    4.1068 -0.519705 0 0 0
 -7.70127   4.02555 -0.406429 0 0 0
-7.65952  3.84382   4.2692 0 0 0
 -8.45827 -0.941303  -2.11022 0 0 0
 -8.30302 -0.601585  -1.55871 0 0 0
 -8.81221  0.599127 -0.951456 0 0 0
-6.77466  4.02036 0.915742 0 0 0
 -7.63563   3.88233 -0.111905 0 0 0
-8.56112  1.13752 -3.21763 0 0 0
 -7.44718    3.9888 0.0833785 0 0 0
-6.47844  4.27243   1.0369 0 0 0
 -8.93749 -0.796717  -3.10217 0 0 0
 -7.48162   3.96941 0.0771249 0 0 0
-6.94753  4.79961 0.770523 0 0 0
 -7.7863  3.11103 0.049835 0 0 0
 -8.30175   4.20277 -0.719399 0 0 0
-6.77001  3.79939 0.995248 0 0 0
-8.32038 -1.70942 -1.20736 0 0 0
-8.95979 -1.46759  -2.5762 0 0 0
-6.50444  4.10245  1.25544 0 0 0
 -7.4777  2.96503 0.387985 0 0 0
-7.48861  3.04706 0.538219 0 0 0
 -7.4189  2.90203 0.446733 0 0 0
-7.50381  3.18253 0.442015 0 0 0
-8.88715  1.08479 -1.56324 0 0 0
-7.19498  2.47559  1.28954 0 0 0
-7.6094  3.4677 0.40475 0 0 0
-8.55044  1.44827 -3.28848 0 0 0
 -8.32362 -0.919301   -1.7624 0 0 0
-12.0627  1.22841   1.7761 0 0 0
 -9.48304 0.0140166  -4.22587 0 0 0
 -9.45645 0.0158486  -4.22359 0 0 0
 -8.41099 -0.227331  -2.06986 0 0 0
-12.6713  1.09863    1.089 0 0 0
-9.19451  2.67067 -2.53766 0 0 0
-12.4986 0.736252  1.33052 0 0 0
-12.4132 0.878085  1.45527 0 0 0
-8.54911  1.05162 -3.10411 0 0 0
-12.4567 0.700381  1.48747 0 0 0
-11.9285  3.08503 -1.22873 0 0 0
-6.89048  3.55777  1.00909 0 0 0
-7.78938  3.89949  4.73353 0 0 0
-7.23675  4.00797 0.443103 0 0 0
-12.6606  1.36951  1.03373 0 0 0
 -7.79322   4.09458 -0.607803 0 0 0
-7.06712  1.97513  1.75521 0 0 0
 -7.48849   4.22801 -0.170689 0 0 0
-8.62028  1.23491  -3.7113 0 0 0
  -7.82406    3.19254 -0.0942097 0 0 0
-6.79071  4.34844  1.92119 0 0 0
-7.59979  3.46369 0.139127 0 0 0
-8.71025 0.736224 -1.25936 0 0 0
 -8.10203 -0.317273  -1.32697 0 0 0
-8.76131 0.816702 -3.80393 0 0 0
-8.57018 0.901401 -3.49518 0 0 0
-6.98119  5.84936 0.919418 0 0 0
-8.53694  1.61639 -3.35727 0 0 0
-8.64807  1.09622 -3.76097 0 0 0
-8.66573  1.57748 -3.54615 0 0 0
-8.68342  1.08509 -3.89757 0 0 0
 -8.28758 -0.614283  -1.00857 0 0 0
-9.00835  2.11071 -2.67636 0 0 0
-8.54618  1.37459 -3.47109 0 0 0
-8.72712 0.938994 -3.94369 0 0 0
-6.85939   4.0295 0.772557 0 0 0
-11.2754  2.35003  2.18428 0 0 0
-8.42592 -1.49922 -1.72085 0 0 0
